ply
format ascii 1.0
element vertex 881
property float x
property float y
property float z
property float nx
property float ny
property float nz
end_header
-33.958 -23.3061 -657.218 0.23482 0.578449 0.781189
-7.88298 -15.4157 -658.168 -0.519987 0.802744 0.291917
-45.6461 -12.5741 -657.571 -0.598946 -0.221046 0.769677
-1.62085 -12.764 -655.765 -0.405613 0.727414 0.553487
-45.646 -12.0741 -657.443 -0.302108 -0.121769 0.945465
-45.646 -11.5741 -657.403 -0.27425 -0.121304 0.953977
-46.146 -11.0741 -657.45 -0.256028 -0.164221 0.952618
-46.146 -10.5741 -657.364 -0.283076 0.0988915 0.953986
-43.6454 -10.7665 -656.724 0.0977042 0.07478 0.992402
-39.1455 -1.07441 -657.605 -0.379605 -0.107262 -0.91891
-39.6455 -1.57437 -657.341 -0.379605 -0.107262 -0.91891
-39.1455 -1.57441 -657.546 -0.379604 -0.107263 -0.91891
74.0416 -2.21562 -657.254 0.31702 -0.12053 -0.940729
74.7052 7.13594 -658.101 0.0528931 -0.0655535 -0.996446
43.0773 7.66723 -659.378 -0.252042 0.426112 -0.868852
64.8786 10.1049 -658.094 -0.0203147 0.275229 -0.961164
90.6675 18.1692 -658.331 -0.0154637 -0.488931 -0.872186
94.8107 17.3758 -657.651 0.160394 -0.310865 -0.936823
69.8556 19.9201 -657.497 0.690798 -0.665723 -0.282156
69.8555 19.8441 -657.209 0.627046 -0.778981 0.000955272
70.5868 20.4331 -656.917 -0.442803 -0.819887 0.36292
68.937 21.6404 -658.017 -0.560668 -0.799306 0.216245
69.8556 20.6484 -657.209 -0.758765 -0.19745 0.620717
69.7685 21.4201 -657.209 -0.386167 -0.910254 0.149373
69.8556 21.3816 -657.209 -0.665245 -0.456443 0.590854
68.9052 21.9202 -657.209 -0.716568 -0.667289 0.203114
69.3556 21.5726 -657.209 -0.439422 -0.885079 0.15344
68.3557 22.4202 -657.241 -0.447623 -0.648461 0.615736
68.3946 22.4202 -657.209 -0.5549 -0.618688 0.556158
68.8556 21.9877 -657.209 -0.717205 -0.663469 0.213131
68.3557 22.5038 -657.209 -0.545799 -0.557029 0.625956
67.1393 23.4203 -657.21 -0.720401 0.0443349 0.69214
67.3557 23.321 -657.209 -0.0285926 -0.932873 0.359068
67.3557 22.9202 -657.617 -0.439162 -0.40645 0.801208
67.7005 22.9202 -657.209 -0.675735 0.549199 0.491693
67.747 23.3271 -657.601 -0.258301 0.610927 0.748364
67.3557 23.5626 -657.209 0.0707092 0.968092 -0.240413
65.8558 24.4203 -657.461 0.527667 0.665674 -0.52768
66.1068 24.4203 -657.21 0.592487 0.610283 -0.525845
66.3557 24.1499 -657.21 0.501452 0.743007 -0.443269
66.8436 23.9203 -657.21 0.335784 0.882259 -0.329953
69.8558 24.4101 -657.709 0.423088 0.89908 -0.112481
69.8558 24.4201 -657.63 0.42309 0.899079 -0.112481
69.8346 24.4201 -657.709 0.423089 0.89908 -0.112481
65.8558 24.6703 -657.21 0.576636 0.578745 -0.576667
-22.7591 -40.7342 -658.329 0.170475 -0.960567 0.219658
-3.23284 -31.3987 -655.835 0.279667 -0.807503 0.51935
7.62952 -26.4056 -656.194 0.4589 -0.808327 0.368807
-27.855 -24.9925 -656.225 -0.063487 0.832443 0.550461
-44.0663 -16.62 -656.972 -0.148842 0.0244577 0.988558
65.5309 -14.5398 -658.277 0.337671 -0.281283 -0.898253
24.6344 -3.7032 -657.261 -0.0611019 0.95812 -0.279773
95.549 11.5336 -655.605 0.159055 -0.463837 -0.871525
69.7446 19.9202 -656.709 0.526881 -0.849003 0.0398773
70.3555 20.4201 -656.773 0.039639 0.9649 0.25961
70.3385 20.4201 -656.709 -0.0631626 0.997916 -0.0131999
70.3556 21.2207 -656.709 -0.887731 -0.342015 0.308157
67.8557 22.9203 -656.979 -0.693791 0.288798 0.659734
68.1332 22.9203 -656.709 -0.772064 0.503577 0.38772
68.8556 22.6119 -656.709 0.218921 0.494569 0.841115
68.773 22.9202 -656.709 0.852174 0.00745206 0.523206
69.3556 22.8086 -656.709 -0.255311 0.563639 0.785575
69.5765 22.9202 -656.709 -0.739211 -0.373566 0.560371
67.3557 23.2944 -656.709 -0.170108 -0.9766 -0.131589
69.0393 23.277 -657.148 -0.308343 0.4347 0.846145
67.3557 23.7668 -656.71 0.303122 0.900611 -0.311476
75.3985 29.4866 -658.514 0.334273 0.864438 0.37551
51.2968 -32.4007 -657.13 0.731692 -0.383357 -0.563617
51.6717 -35.0252 -654.348 0.548251 -0.50392 -0.667447
13.2088 -31.4432 -657.643 -0.851327 -0.487095 -0.194888
57.9693 -27.8545 -654.336 0.295035 -0.511666 -0.80694
64.9034 -18.302 -656.567 0.343259 -0.351771 -0.870879
-4.35073 -16.4355 -653.549 -0.337425 0.559714 0.756878
77.1146 -0.739565 -656.052 0.362459 -0.114913 -0.924888
30.021 0.536506 -656.039 -0.430978 0.469784 -0.770429
32.1943 5.8385 -654.16 -0.486277 0.485206 -0.726712
60.9131 13.7457 -656.274 -0.0739123 0.506739 -0.858925
74.1414 13.9923 -656.732 0.0262317 0.264896 -0.96392
81.366 11.8721 -656.582 0.150409 0.0185659 -0.988449
69.4876 14.0803 -657.092 -0.0388219 0.306438 -0.951099
85.1147 16.3912 -655.754 -0.00128428 -0.432619 -0.901576
78.8475 17.2544 -656.263 -0.0901946 -0.627355 -0.773493
69.8554 19.9202 -656.274 0.680105 -0.701119 0.214217
69.8554 19.9717 -656.209 0.503776 -0.858743 0.0936507
70.2426 20.4202 -656.209 0.924196 -0.350769 0.151072
70.3555 20.9455 -656.209 -0.888569 -0.441852 0.123338
69.8555 21.9202 -656.263 -0.716546 0.0597445 0.694977
69.8556 22.4202 -656.363 -0.749548 0.0763055 0.657537
69.9177 21.9202 -656.209 -0.683984 -0.00940916 0.729436
67.8556 23.1228 -656.209 0.0620531 -0.983948 -0.167322
67.3556 23.1989 -656.209 -0.147932 -0.971426 -0.185602
68.3557 23.4202 -656.591 0.43242 0.609212 -0.664735
68.6947 23.4203 -656.209 0.60743 0.775387 -0.172638
67.8556 23.7505 -656.209 0.191882 0.934594 -0.299525
68.3556 23.6841 -656.209 0.401807 0.817041 -0.413515
-28.2996 -38.8166 -655.561 -0.293025 -0.76454 0.574121
11.2445 -27.5181 -657.07 -0.823036 -0.567857 0.0122395
-42.5355 -22.413 -656.402 -0.202273 0.0770989 0.97629
-46.146 -8.57397 -655.946 0.827171 -0.298068 -0.476386
-46.146 -8.93651 -655.719 0.867321 -0.312534 -0.387397
-46.0154 -8.57397 -655.719 0.868381 -0.272871 -0.414071
15.0259 -6.67985 -653.801 -0.456085 0.702814 0.54593
39.2728 12.7435 -654.172 -0.404813 0.580294 -0.706672
47.4423 15.0066 -654.654 0.0768328 0.767836 -0.636022
69.3554 20.0354 -655.709 -0.379494 -0.918263 -0.113034
69.3554 20.0865 -656.209 -0.222781 -0.969808 -0.0992065
69.9305 20.9202 -655.709 0.731057 0.666273 0.147093
70.3555 21.4202 -655.783 -0.893479 -0.0952179 0.438895
70.7183 20.8154 -655.094 -0.990024 0.139709 0.0182808
70.3149 21.9202 -655.709 0.207777 0.0343664 0.977572
70.4023 22.4844 -655.748 -0.673428 0.168462 0.719803
71.3556 23.8117 -656.209 0.663566 0.53961 -0.518171
71.3556 23.9201 -656.1 0.753228 0.380001 -0.536887
71.2459 23.9201 -656.209 0.573934 0.580819 -0.577277
71.6003 23.9201 -655.709 0.776923 -0.0377239 -0.628464
71.8556 23.5838 -655.709 0.650357 0.493523 -0.57747
71.8556 24.2093 -655.709 0.616529 -0.544253 -0.568929
72.803 22.9695 -653.907 -0.725771 0.528695 0.440156
79.6366 28.2603 -654.7 -0.285278 0.946699 0.149589
31.3468 -42.3982 -658.62 0.02951 -0.71265 -0.700899
41.2817 -41.6384 -656.363 0.32016 -0.657937 -0.681627
-32.9704 -32.5212 -653.893 -0.371191 -0.174975 0.911922
12.4437 -29.8559 -655.446 -0.908207 -0.418472 -0.00636405
56.3682 -30.2805 -654.067 0.531075 -0.444972 -0.721082
-36.2329 -27.3033 -654.951 -0.0640793 0.140543 0.987999
61.0334 -23.0553 -655.892 0.312134 -0.475139 -0.822688
-17.1983 -23.9637 -654.071 -0.221281 0.639527 0.736233
65.8652 -23.0581 -653.951 0.45231 -0.439539 -0.776029
-46.1461 -9.57394 -655.277 0.898882 -0.28297 -0.334573
-46.1461 -9.63542 -655.219 0.753046 -0.230102 -0.616421
-46.1461 -9.07395 -655.6 0.873827 -0.289913 -0.390356
-45.8749 -8.57395 -655.219 0.819919 0.150468 -0.552352
6.5548 -9.54488 -655.046 -0.291743 0.623309 0.725515
78.1449 7.42692 -657.133 0.236232 -0.0520847 -0.9703
41.3924 15.4506 -652.588 -0.44687 0.612115 -0.652397
74.7181 17.7072 -655.33 -0.343684 -0.404124 -0.847682
69.3311 19.9203 -655.209 0.877038 0.458867 0.142287
69.087 20.4203 -655.709 -0.80843 -0.563819 -0.168966
69.8554 20.7813 -655.209 0.427905 0.778677 0.458868
70.6739 20.4859 -655.445 -0.898593 -0.411153 0.153243
69.8554 20.9202 -655.558 0.589756 0.752422 0.293341
70.3554 21.4202 -655.404 0.0910094 0.389411 -0.916557
70.1786 21.4202 -655.209 -0.871292 0.401713 0.281915
70.3554 21.0016 -655.209 0.0455393 -0.990438 0.13023
69.8554 20.9736 -655.709 0.55672 0.783191 0.276903
70.4721 21.4307 -655.187 0.755382 0.483877 0.441884
68.3555 22.7538 -655.709 -0.577594 -0.81578 0.0297971
68.146 22.9203 -655.209 -0.542417 -0.836544 0.0773159
68.3555 22.7884 -655.209 -0.53368 -0.841474 0.0843028
68.1311 22.9203 -655.709 -0.596027 -0.802768 0.0177366
71.8556 23.9201 -655.493 0.64585 -0.0223097 -0.763138
96.355 26.1925 -657.941 0.436305 0.436654 -0.786747
32.378 -45.36 -655.157 -0.00944751 -0.803571 -0.595133
27.6042 -45.7655 -653.098 -0.208796 -0.873185 -0.4404
18.6025 -42.4722 -651.095 -0.299117 -0.559973 -0.772632
47.7317 -39.7377 -654.312 0.521727 -0.61406 -0.592226
-24.3303 -37.5711 -653.72 0.0286336 -0.637539 0.769886
54.5039 -26.1978 -656.508 0.474752 -0.328582 -0.816483
-40.2177 -28.4845 -655.609 -0.375501 -0.261336 0.889215
12.1299 -29.0768 -654.712 -0.946435 -0.315215 -0.0700071
11.9617 -28.5768 -654.712 -0.800663 -0.495172 0.337259
11.6622 -28.0768 -654.712 -0.902554 -0.429021 0.0365787
11.8529 -28.4182 -654.712 -0.857397 -0.49082 0.154808
11.4787 -27.5768 -654.712 -0.864967 -0.496404 0.0735885
11.3529 -27.4293 -654.712 -0.726199 -0.685798 0.0481209
5.85298 -26.4164 -654.713 0.431654 -0.736687 0.520545
6.35299 -26.1441 -654.713 0.425824 -0.753907 0.500298
6.46441 -26.0766 -654.713 0.439456 -0.739345 0.510144
6.85301 -25.8538 -654.713 0.473216 -0.714985 0.514648
7.20476 -25.5766 -654.713 0.508329 -0.680985 0.527126
7.35303 -25.4712 -654.713 0.415543 -0.73218 0.539663
7.85304 -25.2422 -654.713 0.124245 -0.819771 0.559051
-22.9755 -23.9666 -656 -0.321162 0.805107 0.498655
-10.4798 -19.2441 -655.245 -0.448629 0.658814 0.6039
-45.6462 -9.57394 -654.853 0.747906 -0.19263 -0.635241
-45.6462 -9.7717 -654.719 0.679962 -0.30151 -0.668389
-45.5585 -9.57394 -654.719 0.844764 -0.225511 -0.485302
-45.8375 -8.68962 -655.195 0.781478 -0.132599 -0.609679
-45.478 -9.07394 -654.719 0.900112 -0.13488 -0.414254
-45.6461 -8.57395 -655.096 0.623082 -0.590734 -0.512642
-45.3961 -8.57395 -654.719 0.850992 -0.200725 -0.485306
102.79 13.2314 -653.28 0.503908 -0.353624 -0.788053
51.6971 12.2777 -657.06 0.0379544 0.644316 -0.763817
64.6317 14.7826 -656.298 -0.0955326 0.425015 -0.900131
71.6021 19.6303 -654.736 -0.464741 -0.550727 -0.693336
69.3093 19.9203 -654.709 -0.907338 0.415051 -0.0668605
70.208 19.9118 -654.753 0.0563264 -0.312953 -0.948097
69.8553 20.4203 -654.791 0.459392 0.502116 0.732693
69.8553 20.1661 -654.709 0.429183 0.833214 0.34865
68.2534 22.9204 -654.709 -0.553893 -0.814573 0.172259
68.3554 22.8499 -654.709 -0.608389 -0.769302 0.195032
86.8833 30.2078 -655.247 -0.152859 0.937436 -0.312808
-21.1076 -33.734 -651.779 0.170906 -0.374968 0.911148
-17.998 -31.8536 -651.971 0.207578 -0.242201 0.947761
15.0171 -35.0234 -654.702 -0.794053 -0.516514 -0.320458
13.14 -31.5769 -654.212 -0.906199 -0.419374 -0.0541237
12.9775 -31.0769 -654.212 -0.915862 -0.397012 -0.0598177
12.6818 -30.5768 -654.212 -0.890117 -0.448707 -0.0797186
12.8527 -30.8817 -654.212 -0.859319 -0.49171 -0.140685
12.5241 -30.0768 -654.212 -0.923034 -0.384619 -0.00869187
12.3528 -29.7693 -654.212 -0.862724 -0.504068 -0.0402775
12.091 -29.0768 -654.212 -0.962552 0.0264958 -0.269798
-30.8333 -24.7884 -656.201 0.0817908 0.700678 0.708774
3.86489 -29.5779 -655.877 0.422148 -0.775531 0.469407
11.6205 -28.0768 -654.212 -0.880582 -0.460931 -0.110086
11.8528 -28.4817 -654.212 -0.85683 -0.501707 -0.118878
2.85287 -27.7533 -654.213 0.195218 -0.592547 0.781523
3.35287 -27.6728 -654.213 0.249974 -0.593562 0.764982
3.48504 -27.5764 -654.213 0.356372 -0.456348 0.815319
3.8529 -27.0841 -654.213 0.28966 -0.255596 0.922371
3.8632 -27.0764 -654.213 0.288283 -0.285321 0.914048
4.81606 -27.0707 -654.512 0.362395 -0.49177 0.791728
11.3529 -27.4601 -654.212 -0.80945 -0.585312 -0.0469082
4.04251 -26.5764 -654.213 0.267531 -0.351108 0.897302
4.35293 -26.3975 -654.213 0.170851 -0.385524 0.906742
4.85293 -26.4607 -654.213 0.014598 -0.440536 0.897616
5.35293 -26.372 -654.213 0.318347 -0.741869 0.590157
5.85294 -26.3614 -654.213 0.0209271 -0.993792 0.109267
5.84503 -25.0538 -654.22 0.0957087 -0.148786 0.984227
5.853 -25.1047 -654.213 0.232308 0.16845 0.957945
5.88123 -25.0765 -654.213 -0.243775 -0.0900235 0.965645
8.35301 -25.0766 -654.332 -0.152263 -0.985985 -0.0681836
8.35299 -25.1738 -654.213 -0.185454 -0.928243 -0.322448
9.59898 -25.241 -654.737 -0.386845 -0.920266 0.0588321
-45.6462 -10.074 -654.597 0.646804 -0.286808 -0.706672
-45.3962 -9.07392 -654.219 0.974477 -0.158248 -0.159222
11.0235 -4.88561 -658.162 -0.35638 0.863179 0.357652
19.9856 -4.01398 -654.529 -0.41471 0.86371 0.286393
89.6853 8.95971 -654.525 0.137748 -0.296025 -0.945196
70.7893 18.3125 -654.532 -0.0852534 0.18905 -0.97826
69.2667 19.8459 -654.593 -0.535661 -0.00577675 -0.844414
69.3553 20.0337 -654.709 -0.681359 0.605752 -0.410872
68.8554 22.4203 -654.42 -0.660046 -0.750001 -0.0428744
68.8278 22.3929 -654.209 -0.348802 -0.92693 0.138338
68.9105 22.4203 -654.209 0.315706 -0.947374 0.053033
68.3554 22.9204 -654.502 -0.682497 -0.691912 0.23549
68.4496 22.9204 -654.209 -0.705032 -0.572011 0.419206
74.3175 26.1099 -654.496 -0.407883 0.6474 0.643821
-13.8908 -30.7791 -652.721 0.13569 -0.338333 0.931192
53.3881 -34.4834 -653.718 0.581469 -0.508842 -0.634803
13.0893 -31.5768 -653.712 -0.880341 -0.463732 -0.0997591
12.6324 -30.5768 -653.712 -0.899142 -0.423822 -0.10917
12.8527 -31.0715 -653.712 -0.905739 -0.408656 -0.112418
12.3527 -29.8865 -653.712 -0.891726 -0.440109 -0.105492
-28.4365 -29.3966 -653.202 -0.3067 0.340591 0.888782
0.572658 -28.812 -654.323 0.230027 -0.63895 0.734051
12.0434 -29.0768 -653.712 0.66674 0.744543 -0.0333814
11.8528 -28.5768 -653.867 -0.837839 -0.519763 -0.166948
9.85281 -28.0767 -653.766 0.499154 -0.339435 -0.797263
9.8528 -28.1505 -653.712 0.401392 -0.539254 -0.740331
9.95199 -28.0767 -653.712 0.459931 -0.262442 -0.848285
11.5909 -28.0768 -653.712 -0.994469 -0.0784492 -0.0698356
0.852814 -27.7715 -653.713 0.434216 -0.539619 0.721296
1.29132 -27.5763 -653.713 0.238935 -0.537872 0.808458
2.85286 -27.5763 -654.086 0.0995883 -0.361449 0.927058
5.85283 -27.5765 -653.724 -0.370259 -0.501162 -0.782142
5.83377 -27.5765 -653.713 -0.41415 -0.538468 -0.733847
5.85283 -27.5913 -653.713 -0.41431 -0.530804 -0.73932
10.0946 -27.5767 -653.712 0.657127 -0.241021 -0.714208
9.85285 -27.5767 -653.954 0.683431 -0.257071 -0.683255
1.35283 -27.549 -653.713 0.16308 -0.508812 0.84529
1.85283 -27.4087 -653.713 0.204581 -0.541099 0.815695
2.35284 -27.2088 -653.713 0.447589 -0.612695 0.651359
2.43697 -27.0763 -653.713 0.496209 -0.268413 0.82567
2.85288 -27.0763 -653.963 0.360941 -0.299933 0.883041
5.35286 -27.0765 -653.811 -0.345419 -0.484249 -0.803858
5.35285 -27.1987 -653.713 -0.439813 -0.560051 -0.702073
5.85287 -27.0765 -653.946 -0.240015 -0.394214 -0.887123
11.3528 -27.527 -653.712 -0.833301 -0.5335 -0.144869
2.85289 -26.5763 -653.865 0.347866 -0.180437 0.920017
3.3529 -26.5764 -654.002 0.258299 -0.185923 0.948005
4.35293 -26.0764 -654.059 0.239426 -0.395867 0.886546
3.85292 -26.5764 -654.148 0.246658 -0.416048 0.875251
3.85292 -26.0764 -653.939 0.25441 -0.387579 0.886035
3.35291 -25.9633 -653.713 0.371596 -0.4588 0.807105
3.85293 -25.5893 -653.713 0.414332 -0.533707 0.737215
9.50306 -25.5767 -653.712 -0.366261 -0.858946 -0.357862
-20.3725 -25.6705 -653.408 -0.101735 0.573648 0.81276
4.35294 -25.279 -653.713 0.358032 -0.586414 0.726589
4.68681 -25.0764 -653.713 0.381029 -0.560597 0.735219
4.85296 -25.0764 -653.809 0.354515 -0.466831 0.810178
5.35298 -25.0765 -653.964 0.370968 -0.299045 0.879179
4.85295 -25.5764 -653.976 0.282096 -0.303274 0.910191
8.85299 -25.0766 -654.091 -0.304996 -0.945794 -0.111586
8.85293 -25.4876 -653.713 -0.341363 -0.826268 -0.448053
9.35293 -25.5174 -653.712 -0.223601 -0.891973 -0.39292
4.85296 -24.9567 -653.713 0.374129 -0.490062 0.787316
5.85301 -24.5765 -654.026 0.391816 -0.352688 0.849759
5.35298 -24.4706 -653.713 0.468139 -0.391157 0.792365
5.6674 -24.0765 -653.713 0.51607 -0.363566 0.775559
5.85301 -24.0765 -653.847 0.544468 -0.3686 0.753451
5.85302 -23.7736 -653.713 0.523229 -0.354235 0.77508
6.35305 -23.0462 -653.713 0.442845 -0.288757 0.848827
6.35305 -23.0765 -653.726 0.508541 -0.335521 0.792976
6.33307 -23.0765 -653.713 0.45341 -0.299148 0.839601
87.3415 5.17956 -654.498 0.276602 -0.256307 -0.926174
69.0961 20.6567 -653.501 -0.240837 0.773732 -0.585948
68.8554 22.4204 -654.14 -0.407375 -0.704688 0.580914
68.8554 22.9204 -653.959 -0.501577 -0.293233 0.813901
101.931 26.327 -652.793 0.637067 0.561765 -0.527793
19.1772 -39.8413 -654.905 -0.592638 -0.660413 -0.461124
13.0286 -31.5768 -653.212 -0.880959 -0.380857 -0.280819
12.8526 -31.0768 -653.681 -0.846835 -0.524034 -0.0908812
12.8281 -31.1184 -653.212 -0.901544 -0.37934 -0.208132
12.5772 -30.5768 -653.212 -0.901163 -0.417426 -0.116883
12.3527 -30.0115 -653.212 -0.896206 -0.422215 -0.136195
-2.64728 -28.8022 -653.214 0.172391 -0.710731 0.682014
-2.14727 -28.589 -653.213 0.256933 -0.607129 0.751917
-2.11571 -28.5761 -653.213 0.253244 -0.617238 0.744905
-1.64726 -28.3839 -653.213 0.254564 -0.61474 0.74652
-1.14725 -28.17 -653.213 0.264466 -0.598473 0.756233
-0.950587 -28.0761 -653.213 0.27807 -0.579487 0.766075
11.5083 -28.0767 -653.212 -0.904337 -0.385371 -0.183475
-0.647242 -27.9289 -653.213 0.287547 -0.56994 0.76973
-0.147229 -27.6604 -653.213 0.0855023 -0.663076 0.743653
0.35276 -27.8735 -653.213 0.0100016 -0.762503 0.646908
11.3528 -27.5767 -653.602 -0.837996 -0.489448 -0.241254
2.85289 -26.3951 -653.713 0.427656 -0.496086 0.755651
2.85288 -26.0763 -653.504 0.430638 -0.48534 0.760918
3.22269 -26.0763 -653.713 0.426723 -0.477267 0.768195
10.0369 -26.0767 -653.212 -0.678596 -0.695242 -0.236953
3.3529 -25.5763 -653.481 0.384093 -0.477217 0.790402
3.85293 -25.5764 -653.703 0.395556 -0.554146 0.732433
3.86811 -25.5764 -653.713 0.446184 -0.610385 0.654485
9.85286 -25.9204 -653.212 -0.592536 -0.76781 -0.243657
4.35294 -25.0764 -653.552 0.321377 -0.52607 0.78738
3.85293 -25.0764 -653.463 0.230137 -0.432718 0.871661
9.35292 -25.5766 -653.639 -0.29362 -0.744256 -0.599892
3.35291 -24.9623 -653.213 0.386295 -0.461439 0.798655
3.85293 -24.5962 -653.213 0.420872 -0.590406 0.688686
4.85296 -24.5764 -653.498 0.405781 -0.437278 0.802577
5.26245 -24.5764 -653.713 0.430501 -0.406368 0.805937
5.35298 -24.0764 -653.522 0.471732 -0.355922 0.806715
4.85296 -23.9106 -653.213 0.355703 -0.389723 0.849465
5.35299 -23.5764 -653.338 0.483528 -0.311287 0.818108
5.85302 -23.5765 -653.617 0.485905 -0.296252 0.822272
5.85303 -23.0765 -653.477 0.494213 -0.324984 0.806312
6.35306 -22.5765 -653.565 0.45307 -0.240865 0.858319
6.35307 -22.0765 -653.444 0.448335 -0.182626 0.87501
6.35309 -21.5765 -653.361 0.454581 -0.154304 0.877238
6.35311 -21.0765 -653.268 0.416678 -0.226617 0.880355
6.85313 -20.5765 -653.272 0.348768 -0.250575 0.903091
6.85314 -20.253 -653.213 0.41966 -0.161934 0.89312
27.0399 -1.82312 -655.508 -0.404025 0.629687 -0.66352
89.952 -0.969631 -650.944 0.415766 -0.443385 -0.794071
80.0025 28.0846 -651.255 -0.511074 0.816221 -0.269419
-14.9947 -35.9312 -656.332 0.321901 -0.761809 0.562162
12.5033 -30.5768 -652.712 -0.897889 -0.257084 -0.357356
12.3526 -30.0768 -653.058 -0.899376 -0.399591 -0.177343
-8.99932 -31.3186 -653.763 0.163507 -0.552869 0.817069
-6.64734 -28.8933 -652.714 0.0501484 -0.564166 0.824137
-4.05973 -29.3847 -653.499 0.161838 -0.632417 0.757534
-2.64729 -28.576 -653.025 0.0685845 -0.593367 0.802005
-4.64731 -28.3244 -652.714 0.884672 0.464961 0.0341647
-4.1473 -28.2631 -652.714 0.116548 -0.563167 0.818083
-3.6473 -28.1215 -652.714 0.026184 -0.533572 0.845349
-3.1473 -28.1745 -652.714 0.0148501 -0.553421 0.832769
-2.6473 -28.1338 -652.714 0.0465633 -0.574024 0.817514
10.8962 -26.8916 -653.426 -0.742484 -0.583408 -0.32917
10.3528 -27.0767 -652.83 -0.655202 -0.303331 -0.691882
10.3527 -27.3388 -652.712 -0.667229 -0.286173 -0.687685
10.3528 -26.5767 -653.039 -0.676023 -0.477186 -0.561504
2.85288 -25.0763 -652.994 0.448453 -0.479153 0.754521
2.85289 -25.4094 -653.213 0.489712 -0.479287 0.728331
2.69958 -25.5763 -653.213 0.513463 -0.471715 0.716827
3.2323 -25.0763 -653.213 0.439406 -0.468818 0.766246
3.35291 -24.5763 -652.985 0.379653 -0.47173 0.795823
3.85293 -24.5764 -653.194 0.416567 -0.554407 0.720489
3.88254 -24.5764 -653.213 0.439999 -0.535847 0.720603
4.92857 -23.2192 -652.928 0.392483 -0.297387 0.870355
4.35294 -24.2719 -653.213 0.245475 -0.376563 0.893276
3.85293 -24.0763 -652.963 0.297654 -0.367108 0.881268
4.64233 -24.0764 -653.213 0.268602 -0.384005 0.883399
3.35291 -23.9478 -652.713 0.377192 -0.341849 0.860735
3.89532 -21.7879 -652.124 0.318028 -0.139853 0.93771
6.85315 -20.0765 -653.181 0.344502 -0.179446 0.921476
7.35316 -19.5765 -653.079 -0.276239 -0.201388 0.939753
7.85316 -19.0765 -652.763 -0.26536 -0.0364404 0.963461
7.85313 -19.5765 -652.757 -0.40942 -0.14162 0.901287
7.09353 -18.6468 -652.956 -0.0433618 -0.107665 0.993241
7.85317 -18.7068 -652.713 -0.310815 -0.127113 0.941932
2.57884 -13.1868 -653.515 -0.22157 0.52666 0.820693
11.3046 -12.9189 -651.026 -0.633096 0.492026 0.597578
23.3574 -2.93841 -654.664 -0.302437 0.852085 -0.427179
104.329 18.2076 -653.556 0.671549 -0.0266214 -0.740482
61.1887 18.6552 -652.914 -0.270306 0.577501 -0.770342
84.3176 30.4977 -653.253 -0.322644 0.856763 -0.402317
89.1128 30.3 -656.208 -0.00846083 0.908231 -0.418385
48.2786 -41.4645 -651.604 0.539868 -0.661609 -0.5204
-27.0221 -33.3773 -652.065 -0.244138 -0.195837 0.94976
11.5357 -30.4219 -650.843 -0.340049 -0.369202 -0.864902
11.5307 -28.5552 -652.318 -0.66095 -0.52465 -0.536551
-6.80873 -28.5758 -652.214 -0.26714 -0.254737 0.929379
-6.14733 -28.5758 -652.653 0.30983 -0.370919 0.875457
59.914 -24.8409 -656.195 0.404237 -0.450356 -0.796098
-9.0337 -27.9485 -652.254 0.0158738 -0.17179 0.985006
-6.58452 -28.5758 -652.214 0.786963 -0.19898 0.584034
-4.64734 -28.0759 -652.284 -0.572325 -0.694583 0.435889
10.3527 -28.0766 -652.226 -0.27572 -0.524592 -0.80547
10.3527 -28.1052 -652.212 -0.244365 -0.436556 -0.865855
-17.2534 -27.8361 -652.227 0.00719724 0.200156 0.979738
-5.27343 -27.5758 -652.214 -0.0150422 -0.51992 0.854083
-5.14732 -27.6087 -652.214 -0.263591 -0.66759 0.696307
-4.64734 -28.0394 -652.214 -0.607003 -0.704544 0.367648
10.3527 -27.5766 -652.616 -0.392047 -0.545477 -0.740779
-6.33367 -27.8327 -652.299 0.0836157 -0.194403 0.977352
-5.64731 -27.4678 -652.214 -0.00302254 -0.221151 0.975235
-10.4958 -22.8864 -652.376 -0.230098 0.335567 0.913482
-13.8989 -25.5571 -652.324 -0.136801 0.177973 0.97448
2.85289 -24.4232 -652.713 0.399296 -0.36569 0.840734
2.35286 -24.0762 -652.269 0.557752 -0.269869 0.78491
3.23041 -24.0763 -652.713 0.371124 -0.377146 0.848545
2.28689 -24.0762 -652.213 0.614682 -0.246761 0.749183
1.85666 -17.3319 -651.704 -0.000778097 0.265501 0.96411
5.93895 -19.7847 -652.699 0.330426 -0.113838 0.936942
7.85318 -18.5765 -652.696 -0.286441 -0.287871 0.913828
8.35317 -18.0765 -652.331 -0.444695 0.0322406 0.895102
8.6008 -18.0765 -652.213 -0.401019 0.0517408 0.914607
7.80524 -15.0531 -652.729 -0.2521 0.154563 0.955278
15.0251 -9.71467 -649.551 -0.806287 0.583116 -0.0993777
85.7624 -3.85073 -651.553 0.440043 -0.381408 -0.812952
23.8064 2.26199 -650.803 -0.568201 0.516746 -0.640407
64.5051 19.1231 -653.74 -0.196807 0.572648 -0.795827
74.8968 24.8572 -651.619 -0.570869 0.803147 -0.170481
53.3982 -36.4675 -651.211 0.535134 -0.575537 -0.618376
14.2929 -36.5292 -652.01 -0.533807 -0.286462 -0.795607
10.3526 -28.5766 -651.966 -0.493028 -0.327102 -0.806181
-24.0649 -26.5065 -652.964 -0.188123 0.590709 0.784648
-6.64738 -28.5758 -652.109 0.048703 0.228717 0.972274
10.1482 -28.0766 -651.712 -0.906424 -0.142751 -0.397514
64.2979 -27.271 -652.753 0.323714 -0.57298 -0.75293
-6.14731 -27.0758 -652.023 -0.542596 -0.130838 0.829742
-5.64729 -26.5758 -651.955 0.0784613 -0.118343 0.989868
-5.14729 -26.5758 -652.04 0.0589908 -0.159722 0.985398
-4.64728 -26.5759 -652.043 -0.139937 -0.196575 0.970451
-4.64711 -26.0761 -651.94 -0.18906 -0.178859 0.965539
-4.14729 -26.0765 -651.714 -0.38316 -0.367987 0.847215
-4.1473 -26.5759 -651.893 -0.340817 -0.255054 0.904871
-5.99539 -25.1361 -651.755 -0.0720963 -0.0875041 0.993552
-2.64729 -26.076 -651.766 0.113187 -0.0320828 0.993056
-2.94374 -26.0759 -651.714 0.143214 -0.0313929 0.989194
-2.97731 -25.5759 -651.714 0.0753474 -0.0236778 0.996876
-2.5095 -25.576 -651.714 -0.368893 0.0110097 0.929407
-2.40963 -23.2559 -651.702 -0.0510937 -0.00729097 0.998667
-2.40342 -25.076 -651.714 -0.158947 -0.00714389 0.987261
1.85283 -23.5762 -651.725 0.572407 -0.249839 0.780981
1.8373 -23.5762 -651.713 0.493253 -0.109548 0.86296
1.84525 -23.0762 -651.713 0.490709 0.604853 0.627182
-6.9644 -21.5256 -651.947 -0.217031 0.274535 0.936765
2.2586 -23.2243 -651.91 0.402355 -0.161358 0.901152
8.85315 -18.0765 -652.115 -0.58798 0.0513209 0.807246
8.93307 -16.5231 -652.155 -0.632985 0.0852426 0.769457
9.1745 -18.0765 -651.713 -0.861245 0.0179371 0.507874
70.4418 -13.4045 -655.195 0.467838 -0.276446 -0.839467
18.7785 -5.57202 -651.521 -0.708731 0.690685 -0.143713
93.5584 0.630471 -649.952 0.462933 -0.45402 -0.761287
9.91361 -30.7142 -651.574 -0.220773 -0.230975 -0.947581
-23.2776 -30.6824 -651.208 -0.069759 0.100742 0.992464
10.0923 -27.5766 -651.712 -0.920348 0.050152 -0.387871
10.0596 -27.0766 -651.212 -0.887338 0.323075 -0.329021
-4.14729 -26.0759 -651.714 -0.352877 -0.213017 0.911099
-3.64728 -25.5759 -651.56 0.00855666 0.0823622 0.996566
-3.14727 -25.5759 -651.676 0.149093 0.0401284 0.988009
-2.14726 -25.076 -651.567 -0.468265 -0.0020195 0.883586
-1.64725 -24.576 -651.335 -0.173129 0.169533 0.970198
-4.92215 -23.4059 -651.729 -0.0544232 0.00188132 0.998516
-1.14725 -24.576 -651.363 0.290125 0.488979 0.822634
-0.647229 -24.576 -651.614 0.155373 0.270622 0.950065
-0.147196 -24.0761 -651.699 -0.0568863 -0.152708 0.986633
0.352807 -23.5761 -651.477 -0.208099 -0.0767218 0.975094
0.852786 -23.5761 -651.251 -0.260655 0.123959 0.957441
1.3528 -23.3706 -651.213 0.175847 0.379069 0.908507
0.998027 -23.5761 -651.213 -0.229469 0.396127 0.88906
0.592268 -22.49 -651.414 0.0647743 0.0317956 0.997393
-2.46551 -21.1839 -651.567 -0.138313 0.0903108 0.986262
-0.173012 -19.6643 -651.152 -0.0586176 0.128302 0.990001
9.35302 -19.0765 -651.351 -0.906928 0.0336982 0.419935
9.35305 -18.5765 -651.33 -0.883947 0.0039602 0.467571
9.40889 -19.0765 -651.213 -0.925198 0.0763734 0.371719
77.6775 -10.8598 -652.47 0.432207 -0.42587 -0.794879
21.1405 -2.88219 -652.361 -0.632696 0.630085 -0.45021
102.042 7.08776 -649.605 0.487813 -0.536074 -0.688958
71.7137 21.8135 -652.175 -0.415411 0.797481 -0.437558
66.8553 26.5535 -651.71 0.605336 0.516873 0.605318
66.9688 26.4206 -651.71 0.605336 0.516873 0.605318
66.8553 26.4206 -651.597 0.605337 0.516873 0.605318
92.7577 31.1413 -654.617 0.222512 0.852874 -0.472328
35.7228 -48.2997 -650.616 0.0652655 -0.894189 -0.442906
39.4817 -45.8323 -652.678 0.291288 -0.756924 -0.584993
26.0956 -46.657 -650.168 -0.168611 -0.745035 -0.645362
10.103 -26.5765 -650.712 -0.87814 0.292277 -0.378741
69.0784 -19.5363 -654.579 0.492386 -0.355836 -0.794315
9.56572 -19.5765 -650.713 -0.976864 0.0516951 0.20752
42.6151 16.7258 -652.695 -0.319946 0.704254 -0.633768
61.3012 20.7685 -651.186 -0.245304 0.693154 -0.677764
58.2646 17.8797 -652.395 -0.193675 0.616271 -0.763348
98.3378 30.2934 -650.663 0.445853 0.825627 -0.345767
43.1911 -47.19 -647.879 0.351576 -0.868977 -0.348243
12.5176 -41.6714 -651.12 -0.104216 -0.188504 -0.976527
6.73671 -40.2248 -650.175 -0.359723 0.0194491 -0.932856
9.94972 -26.0765 -650.212 -0.760847 0.0421751 -0.647559
9.64972 -20.0765 -650.213 -0.986478 -0.00279632 0.16387
9.66937 -18.2525 -650.734 -0.928906 0.114706 0.352103
74.1783 -11.6403 -654.572 0.445016 -0.312118 -0.839371
18.5794 0.249002 -647.021 -0.688457 0.506199 -0.519413
95.1691 3.95897 -650.803 0.317588 -0.499017 -0.8063
72.8599 29.4203 -650.709 0.708136 0.619339 0.339062
72.8554 29.4203 -650.7 0.708137 0.619338 0.339062
72.8554 29.4254 -650.709 0.708136 0.619339 0.339062
12.0148 -45.388 -650.187 -0.00921205 -0.362675 -0.93187
9.91699 -25.5765 -650.212 -0.784119 0.0426663 -0.619142
9.8526 -25.0765 -650.071 -0.909221 0.150481 -0.388166
9.75054 -25.0765 -649.712 -0.931457 0.139544 -0.336028
9.68573 -21.0765 -649.713 -0.989573 0.0394363 0.138527
9.65142 -20.5765 -650.213 -0.989821 0.0312886 0.138832
10.09 -18.5755 -647.537 -0.933499 0.252217 -0.254885
76.2259 -19.4736 -648.364 0.596175 -0.419435 -0.68458
76.0173 26.4638 -649.561 -0.322736 0.725474 -0.607889
21.6763 -47.8317 -648.87 -0.0164131 -0.445631 -0.895066
6.77406 -45.0393 -649.799 -0.230325 -0.200948 -0.95214
8.42043 -34.4209 -649.614 -0.459218 0.0722161 -0.885383
9.56449 -36.5572 -650.654 -0.33522 0.0825778 -0.938514
7.86102 -31.9356 -649.301 -0.647958 0.121211 -0.751969
61.9989 -30.7662 -649.586 0.356282 -0.593718 -0.7215
9.0453 -27.8817 -649.267 -0.792613 0.20567 -0.573991
9.71594 -24.5765 -649.713 -0.981834 -0.0607341 -0.179759
9.69627 -24.0765 -649.713 -0.978504 -0.0372568 -0.202837
9.21349 -22.4774 -647.678 -0.880583 0.171424 -0.441801
9.67883 -23.5765 -649.713 -0.978056 -0.0332261 -0.205677
9.66272 -23.0765 -649.713 -0.974902 0.0217265 -0.221574
9.63156 -22.5764 -649.213 -0.954123 0.132775 -0.268365
9.63526 -22.0764 -649.213 -0.981734 0.116988 -0.150039
9.67039 -21.5765 -649.713 -0.993646 0.0887775 0.0691865
79.4773 -7.44567 -653.919 0.38429 -0.37009 -0.845786
98.5029 3.54963 -649.501 0.355003 -0.633986 -0.687047
41.9814 19.9343 -647.873 -0.156647 0.889496 -0.429254
48.6771 18.2526 -649.69 -0.0704059 0.823165 -0.56342
105.897 21.6451 -650.859 0.775611 0.282858 -0.564286
71.8617 27.1453 -648.162 -0.277729 0.675663 -0.682896
8.18317 -49.0386 -648.935 0.173204 -0.236775 -0.956001
17.539 -45.2611 -649.521 -0.0441636 -0.392028 -0.918893
48.0677 -43.9391 -648.606 0.522747 -0.72689 -0.445384
53.6237 -38.6895 -649.439 0.538533 -0.619562 -0.571074
60.506 -32.6448 -650.199 0.522015 -0.55572 -0.647051
27.0597 6.08337 -650.701 -0.498496 0.584307 -0.64038
106.564 11.3801 -649.528 0.669758 -0.352825 -0.653406
34.6679 13.3932 -650.491 -0.51882 0.604448 -0.60454
5.7142 -50.1381 -649.105 -0.0367433 -0.245601 -0.968674
11.4947 -49.334 -647.825 -0.0174221 -0.292585 -0.956081
26.8032 -50.5384 -647.153 0.0539942 -0.623226 -0.780176
4.38142 -40.6919 -648.731 -0.455536 0.0803946 -0.88658
11.6878 -14.5417 -648.212 -0.907663 0.400955 -0.12403
4.48389 -52.3329 -647.77 -0.0378526 -0.420806 -0.906361
14.9533 -50.0137 -648.504 0.088329 -0.162191 -0.982798
15.095 -47.4025 -648.616 0.0256245 -0.349635 -0.936536
1.91423 -43.7771 -648.084 -0.36694 0.0747273 -0.927238
3.26603 -35.6991 -647.361 -0.557173 0.261355 -0.788195
68.234 -26.1054 -650.746 0.471863 -0.528786 -0.7055
33.9354 17.4116 -644.605 -0.587602 0.70115 -0.403871
76.9332 30.1568 -647.079 -0.367574 0.674218 -0.640562
12.2055 -52.7173 -647.527 -0.0747657 -0.316134 -0.945764
35.6314 -49.4164 -647.397 0.137182 -0.877862 -0.458846
52.5628 -41.196 -646.378 0.47715 -0.652054 -0.589197
26.7025 10.1503 -645.74 -0.601924 0.654622 -0.457338
109.546 16.1571 -646.799 0.797181 -0.0268627 -0.603143
102.121 29.1362 -646.799 0.501038 0.774144 -0.386863
88.4138 34.4667 -646.601 0.0996111 0.886838 -0.451217
-2.20541 -51.5216 -646.807 -0.274151 -0.0343816 -0.961072
16.929 -54.9305 -646.125 0.169058 -0.492638 -0.853655
19.4486 -50.2242 -648.249 -0.0624216 -0.473502 -0.878578
53.3409 -42.3028 -645.217 0.605759 -0.633002 -0.482043
82.4969 33.0349 -647.636 -0.30176 0.768663 -0.564001
6.6535 -57.0436 -646.087 0.00906285 -0.276879 -0.960862
7.94759 -52.9993 -646.813 0.056415 -0.380681 -0.922984
78.3314 -22.6795 -643.61 0.656198 -0.464981 -0.594303
38.7398 17.598 -648.665 -0.41632 0.715249 -0.561334
72.9454 32.1652 -642.744 -0.282884 0.798805 -0.530931
5.41864 -54.3929 -646.237 0.00885835 -0.363606 -0.931511
44.9565 -49.3821 -641.364 0.376139 -0.817298 -0.436512
0.296248 -47.2727 -647.784 -0.337879 0.00754579 -0.941159
-0.521558 -39.3092 -646.13 -0.541944 0.303229 -0.783804
66.2336 -29.5044 -649.02 0.499218 -0.585148 -0.639049
46.1022 20.5241 -644.624 -0.112199 0.92642 -0.359385
-5.85287 -55.9711 -645.29 -0.111155 -0.221072 -0.968902
20.8029 -54.0874 -645.725 0.163778 -0.536333 -0.827964
31.213 -53.0107 -644.422 0.206455 -0.692467 -0.691279
-6.02659 -53.5156 -645.846 -0.318444 0.016519 -0.947798
45.9946 -46.6772 -645.745 0.428799 -0.81041 -0.399209
-5.10142 -44.0628 -644.672 -0.536808 0.243434 -0.807822
56.3459 -37.1888 -647.903 0.49675 -0.634548 -0.592105
63.9332 -33.2872 -647.557 0.3382 -0.652545 -0.67809
68.4866 -31.8669 -645.291 0.395108 -0.67289 -0.625387
71.0522 -30.6843 -644.412 0.566885 -0.58074 -0.58428
72.381 -23.8965 -650.169 0.36616 -0.576303 -0.730617
6.05378 -20.2511 -642.674 -0.784977 0.322315 -0.529079
10.0078 -11.2258 -644.275 -0.807337 0.324475 -0.492873
94.2588 -2.30287 -647.244 0.515616 -0.57278 -0.637231
-0.0575982 -58.5421 -644.649 -0.0718771 -0.26592 -0.961312
-0.160427 -56.4143 -646.287 -0.0317219 -0.451041 -0.891939
60.6513 -37.6975 -644.224 0.443827 -0.6915 -0.569952
71.9506 -27.5449 -646.103 0.490269 -0.611846 -0.62071
88.069 -12.3699 -643.311 0.627475 -0.51208 -0.586557
92.3508 -5.37972 -645.832 0.544697 -0.569812 -0.61532
37.0406 19.7165 -643.788 -0.377088 0.879875 -0.289179
109.927 20.3247 -645.11 0.545556 0.0652495 -0.835531
114.479 22.1905 -644.906 0.141799 -0.161033 -0.976709
106.536 26.4099 -645.145 0.408062 0.44684 -0.796128
103.647 30.5465 -643.495 0.19738 0.673055 -0.712768
-4.95285 -60.7815 -644.696 -0.0166237 -0.210318 -0.977492
87.4098 -8.41687 -647.42 0.54487 -0.50219 -0.671507
23.0782 6.06668 -646.271 -0.63558 0.604118 -0.480706
118.476 24.8731 -644.503 0.136302 0.0299454 -0.990215
64.5803 28.3078 -643.405 -0.267713 0.793673 -0.546272
68.7672 25.608 -648.318 -0.238697 0.708245 -0.66439
127.285 30.8352 -644.126 -0.070447 0.0782564 -0.994441
133.271 32.6116 -644.507 -0.0354934 0.000454879 -0.99937
-3.02028 -63.4071 -643.921 0.00752972 -0.347729 -0.937565
0.752664 -65.1136 -642.971 0.128853 -0.470157 -0.873126
0.28357 -60.577 -644.666 -0.0869711 -0.186839 -0.978533
12.8294 -58.5406 -644.682 0.167703 -0.527075 -0.833107
106.71 5.13687 -643.698 0.614697 -0.620473 -0.486992
121.371 22.6827 -643.67 0.209621 -0.266474 -0.940771
111.118 27.9955 -644.679 0.0482116 0.304359 -0.951336
121.353 30.3799 -643.868 -0.0449802 0.280376 -0.958836
143.577 32.6265 -645.081 -0.0329379 -0.245545 -0.968826
131.079 36.1227 -643.09 -0.285466 0.509681 -0.811625
145.526 39.7795 -645.119 0.0383635 0.120135 -0.992016
148.62 63.2075 -643.586 -0.211633 0.0940527 -0.972813
151.417 66.0498 -643.964 0.0779523 0.310568 -0.947349
-6.92812 -65.6374 -642.765 0.000883951 -0.321504 -0.946908
5.09638 -61.7098 -644.064 0.132493 -0.439855 -0.888242
-9.49753 -62.4135 -643.921 -0.196017 -0.193485 -0.961322
-9.12383 -57.3823 -644.635 -0.327429 -0.0320301 -0.944333
25.6165 -54.6121 -644.346 0.261382 -0.640895 -0.721757
52.1991 -45.0006 -641.804 0.449388 -0.757589 -0.473401
81.698 -16.2769 -646.512 0.55568 -0.504198 -0.661063
99.688 -0.492307 -644.103 0.538092 -0.655299 -0.530132
31.1739 16.2192 -641.664 -0.62413 0.726727 -0.286931
115.523 18.1286 -643.064 0.293949 -0.421777 -0.857728
129.243 26.8679 -643.433 0.107314 -0.274678 -0.955529
149.828 50.0489 -642.935 0.0554965 0.10027 -0.993411
-11.1774 -64.3903 -643.199 -0.132322 -0.158758 -0.97841
-15.264 -57.3345 -641.634 -0.515185 0.220259 -0.828294
28.3807 -56.2312 -641.325 0.245213 -0.784426 -0.56969
-9.04253 -46.8206 -642.825 -0.604222 0.31648 -0.731271
56.3178 -41.92 -642.809 0.431959 -0.696575 -0.572883
109.69 8.61786 -643.643 0.733469 -0.456584 -0.503542
113.305 15.167 -642.237 0.575394 -0.386976 -0.720536
118.758 18.664 -642.051 0.288459 -0.524785 -0.80087
54.1325 22.4313 -646.037 -0.280312 0.8086 -0.517292
140.39 29.9136 -643.267 -0.00289146 -0.390451 -0.920619
82.8197 36.7354 -643.006 -0.213428 0.860815 -0.462002
142.441 42.0337 -643.621 -0.448978 0.409426 -0.794223
148.756 58.1774 -642.931 -0.0718796 -0.147349 -0.986469
151.089 61.3186 -643.992 0.177916 -0.130244 -0.975388
146.457 63.1999 -643.233 -0.445744 0.0825783 -0.891344
-16.423 -63.7107 -642.058 -0.307057 0.0977388 -0.946659
8.81103 -64.0948 -641.852 0.245611 -0.602933 -0.759043
3.49977 -30.0381 -645.025 -0.701527 0.332488 -0.630327
85.0806 -15.2973 -644.238 0.594295 -0.513256 -0.619178
13.465 -4.71355 -644.29 -0.744991 0.440332 -0.501095
51.2188 24.3933 -639.557 -0.363646 0.901269 -0.235533
57.3534 27.1118 -641.06 -0.391169 0.842839 -0.369607
134.802 27.861 -643.172 0.112566 -0.410352 -0.904953
78.2507 33.4569 -644.391 -0.449594 0.706972 -0.545944
159.209 38.7024 -642.061 0.0839696 -0.070764 -0.993953
160.938 41.3162 -642.034 0.338991 0.0921398 -0.936267
138.794 37.5588 -644.233 -0.218047 0.292757 -0.930993
157.292 41.8264 -642.419 0.0374195 0.170533 -0.984641
148.442 54.0001 -642.821 -0.14302 -0.0222204 -0.98947
146.619 67.5377 -641.66 -0.447589 0.518075 -0.728878
-13.9496 -68.1506 -642.407 -0.0650692 -0.316287 -0.946429
-11.8798 -54.3502 -642.739 -0.50157 0.2041 -0.840696
35.8951 -51.4615 -644.155 0.281008 -0.781414 -0.557159
-5.01568 -40.0708 -642.399 -0.668524 0.481849 -0.566478
74.8567 -29.9839 -640.78 0.404506 -0.660203 -0.632856
76.5996 -28.1462 -642.422 0.572524 -0.5806 -0.578895
18.5459 5.28112 -640.714 -0.706514 0.639168 -0.303813
136.256 22.4011 -639.14 0.220387 -0.64966 -0.727579
150.894 33.601 -643.324 0.25543 -0.132489 -0.957707
98.9882 34.4277 -640.291 0.0380701 0.710037 -0.703135
156.995 32.439 -641.76 0.0956284 -0.139683 -0.985568
153.382 41.3481 -642.352 0.212654 0.0737439 -0.974341
-17.5533 -71.9776 -641.73 -0.0395887 -0.138678 -0.989546
-13.005 -70.2615 -641.353 -0.0169838 -0.214843 -0.976501
-21.3484 -68.7504 -640.616 -0.501484 0.138177 -0.854061
-18.805 -67.0528 -641.729 -0.333494 0.053238 -0.941248
25.7617 -57.6771 -639.978 0.282453 -0.785502 -0.550642
38.0164 -54.32 -638.816 0.353428 -0.810546 -0.467015
-0.292554 -34.5226 -642.925 -0.710893 0.431272 -0.55555
12.6305 -2.18008 -640.483 -0.766854 0.521158 -0.374607
15.2644 1.84047 -639.182 -0.740915 0.606281 -0.288909
120.185 35.3087 -639.724 -0.0975842 0.71993 -0.687152
91.8113 35.2924 -642.485 0.39852 0.818256 -0.414293
146.356 57.9472 -642.492 -0.468455 -0.0989341 -0.87793
149.126 68.8837 -641.188 -0.142681 0.704524 -0.695189
153.99 68.5469 -641.587 0.50045 0.582193 -0.640782
-18.2121 -76.4001 -639.922 -0.0344087 -0.241862 -0.9697
-9.60311 -71.8369 -641.562 0.057667 -0.290825 -0.955037
-11.6257 -50.558 -642.13 -0.609618 0.26319 -0.747728
93.4044 -12.0214 -638.312 0.665119 -0.515708 -0.540057
126.12 22.9911 -642.729 0.204343 -0.395904 -0.895268
115.064 31.6378 -642.805 -0.00518156 0.53115 -0.847262
97.5832 32.1221 -643.932 0.292669 0.864814 -0.407972
126.53 34.5523 -642.339 -0.243997 0.610038 -0.753869
134.072 39.5665 -641.32 -0.305624 0.717713 -0.625685
152.826 54.6253 -641.699 0.350448 -0.0195966 -0.936377
-15.3904 -76.7039 -640.265 0.071451 -0.331767 -0.940651
-12.6871 -74.698 -640.782 0.0568622 -0.325141 -0.943955
-21.5867 -74.2286 -640.837 -0.221805 -0.0775141 -0.972005
83.9558 -20.493 -640.023 0.506261 -0.553441 -0.661365
151.032 26.2028 -640.976 0.174536 -0.446349 -0.877673
102.067 36.8495 -639.017 -0.0949318 0.722921 -0.684378
88.6432 38.7391 -639.54 0.193077 0.922696 -0.333697
144.472 49.9682 -641.033 -0.561129 0.220322 -0.797867
157.214 47.6813 -639.925 0.0910487 0.135577 -0.986574
154.928 59.6122 -640.734 0.500152 -0.0952426 -0.860684
144.192 64.635 -640.791 -0.841989 0.258315 -0.473633
-4.45367 -70.2661 -641.095 0.208862 -0.438874 -0.873937
60.8785 -41.8987 -638.351 0.463834 -0.712317 -0.526747
67.1003 -36.7903 -640.07 0.324679 -0.730451 -0.600853
95.8237 -6.47282 -640.722 0.6251 -0.582004 -0.520117
27.0268 13.4406 -639.797 -0.693682 0.685295 -0.221759
43.1761 21.6761 -639.721 -0.221503 0.957028 -0.187175
149.263 23.3344 -639.678 0.112633 -0.666944 -0.736546
158.957 25.7868 -639.18 0.427719 -0.613091 -0.664211
155.612 26.3334 -640.117 0.138885 -0.515389 -0.845627
159.274 30.5969 -641.488 0.329411 -0.282068 -0.901069
143.265 54.0213 -639.356 -0.780606 0.0745458 -0.620562
-22.6042 -78.3945 -639.985 -0.0559824 -0.157272 -0.985967
-26.8892 -75.1589 -638.8 -0.433637 0.171112 -0.884692
14.0888 -64.5459 -639.075 0.390603 -0.670611 -0.630643
-16.892 -52.0428 -637.693 -0.694373 0.42687 -0.579334
79.8039 -26.3937 -639.099 0.619622 -0.479582 -0.621345
98.9502 -3.3114 -640.646 0.596945 -0.656154 -0.461647
140.318 25.3709 -640.313 0.0608667 -0.576902 -0.814542
145.08 21.7699 -637.828 0.00307865 -0.754852 -0.655888
68.8631 32.1305 -639.636 -0.36834 0.845003 -0.387681
114.561 35.8095 -638.33 0.0539956 0.622132 -0.781048
108.11 34.3275 -640.622 0.0378719 0.573297 -0.818472
78.7475 37.7404 -634.646 -0.312295 0.949769 0.0202644
125.5 36.8038 -638.599 -0.23721 0.744761 -0.623749
157.382 63.0021 -639.976 0.74398 0.17409 -0.645125
-27.0265 -81.2648 -639.586 -0.179805 -0.0802278 -0.980425
-18.0893 -79.6925 -639.529 0.101114 -0.281149 -0.954322
-9.85985 -78.3824 -637.943 0.3174 -0.506712 -0.801561
-20.6786 -62.8128 -639.613 -0.609156 0.27504 -0.743829
21.2001 -58.1843 -642.198 0.273483 -0.7078 -0.651327
40.3059 -52.0542 -639.98 0.397632 -0.786674 -0.472263
70.9557 -32.6782 -642.138 0.545372 -0.600105 -0.585187
1.96619 -23.1917 -637.626 -0.846248 0.383832 -0.369511
88.294 -21.6765 -636.277 0.672592 -0.551225 -0.493732
102.799 1.61759 -643.281 0.574685 -0.655077 -0.490522
22.0059 9.37724 -638.562 -0.661121 0.714314 -0.229511
116.151 11.3987 -636.146 0.581884 -0.725751 -0.36701
162.791 30.0146 -637.607 0.739231 -0.327349 -0.58854
74.1846 35.1909 -638.047 -0.376589 0.869814 -0.318755
139.41 44.3097 -637.794 -0.488592 0.457103 -0.743192
160.255 54.6567 -638.123 0.811675 0.267667 -0.51917
159.832 52.0758 -640.054 0.467788 0.19135 -0.862879
-20.1758 -84.6223 -638.166 0.191923 -0.397781 -0.897182
-22.4551 -82.1355 -638.755 0.0398554 -0.27613 -0.960294
-13.6613 -81.8345 -637.446 0.314491 -0.505458 -0.803497
-7.9425 -74.8487 -639.622 0.278515 -0.514509 -0.810993
-10.3732 -43.6887 -638.438 -0.73995 0.526457 -0.418708
63.157 30.3473 -638.472 -0.350823 0.893179 -0.281344
92.5587 36.5066 -638.599 0.283278 0.80315 -0.524122
162.823 42.5635 -640.523 0.822142 0.0585808 -0.56626
142.487 60.1454 -636.9 -0.987715 0.106199 -0.114634
156.436 67.2664 -637.109 0.828251 0.537842 -0.157245
152.661 71.2368 -638.34 0.224151 0.939146 -0.260309
-23.8485 -87.3885 -637.689 0.137149 -0.326544 -0.935179
4.4162 -69.3961 -638.586 0.303881 -0.627988 -0.716441
16.5087 -62.5943 -639.23 0.400451 -0.681582 -0.612442
-3.65641 -33.0261 -635.856 -0.801139 0.496866 -0.333617
69.2023 -37.3619 -638.824 0.30168 -0.732867 -0.609832
87.9157 -16.3861 -639.899 0.653101 -0.433065 -0.62122
5.92328 -14.1673 -638.06 -0.866992 0.365168 -0.339083
117.565 15.3757 -640.121 0.368045 -0.657521 -0.657426
122.654 15.9352 -637.956 0.336587 -0.786619 -0.517629
109.524 39.4243 -637.296 -0.0445102 0.844501 -0.533702
-24.9029 -68.0963 -637.727 -0.638434 0.311149 -0.70398
18.5411 -59.6476 -641.72 0.275807 -0.704652 -0.653755
73.3829 -36.6942 -636.706 0.521281 -0.713727 -0.467825
77.0767 -31.7288 -638.189 0.577623 -0.558566 -0.595277
83.2576 -26.6007 -636.771 0.55284 -0.563805 -0.613589
112.592 9.06144 -638.971 0.747663 -0.552696 -0.36814
132 18.9476 -637.302 0.277481 -0.778796 -0.562566
97.96 37.7608 -637.231 0.0117917 0.905343 -0.424518
131.859 40.7789 -637.014 -0.338993 0.626772 -0.701599
-26.1428 -85.6636 -638.025 0.0218572 -0.263118 -0.964516
-31.1214 -85.5802 -638.112 -0.329493 -0.0504688 -0.942808
-28.7804 -72.7404 -636.734 -0.658048 0.347517 -0.667986
33.0971 -58.443 -634.667 0.387547 -0.842347 -0.374511
9.50182 -8.16462 -640.21 -0.842798 0.419694 -0.33697
17.5655 5.55254 -632.708 -0.698448 0.71266 0.065472
125.97 17.1838 -638.031 0.28823 -0.776341 -0.560551
161.567 35.9316 -641.511 0.560315 -0.103339 -0.821808
99.6227 38.0905 -634.807 -0.0168829 0.991843 0.126343
-33.6675 -93.434 -636.495 -0.105735 -0.134293 -0.985284
-3.42826 -77.8711 -634.891 0.434421 -0.587386 -0.68283
7.64815 -72.4794 -634.014 0.40631 -0.698239 -0.589385
10.5326 -68.0639 -636.571 0.363685 -0.698236 -0.616603
23.2602 -64.6279 -631.595 0.494097 -0.801201 -0.337557
-18.3853 -52.1395 -635.332 -0.800091 0.562569 -0.208255
-13.4516 -47.4627 -637.786 -0.719242 0.528946 -0.450452
77.0004 -35.7759 -633.339 0.601128 -0.792428 -0.103454
29.4404 15.7386 -635.697 -0.631407 0.775447 -0.00247505
144.726 18.9593 -633.855 0.146219 -0.950037 -0.275772
155.839 23.1524 -636.969 0.28701 -0.822493 -0.49105
122.526 37.7429 -636.785 -0.0760235 0.742117 -0.665945
139.873 49.864 -636.141 -0.610245 0.44259 -0.65705
-30.9142 -97.0607 -635.636 0.153231 -0.27276 -0.949801
-32.764 -89.3593 -637.272 -0.274226 -0.0603503 -0.95977
-31.1132 -79.3372 -637.049 -0.610086 0.215879 -0.762359
24.8585 -60.4878 -636.878 0.356468 -0.777902 -0.517493
96.1789 -10.6581 -635.847 0.752783 -0.573738 -0.322711
7.90228 -7.19246 -633.211 -0.871796 0.482049 -0.0871885
11.0709 -2.23338 -634.532 -0.839988 0.535269 -0.0889209
113.291 8.45586 -633.333 0.67241 -0.731326 0.114135
139.667 21.5914 -637.426 0.0528853 -0.750207 -0.659085
119.802 38.751 -635.929 -0.0196358 0.836445 -0.5477
134.736 46.3235 -635.989 -0.424477 0.534713 -0.730686
159.796 60.6713 -636.627 0.923404 0.309412 -0.227132
143.377 65.4951 -634.01 -0.928478 0.344391 0.13901
147.074 70.3474 -638.674 -0.429537 0.852015 -0.299279
37.367 -56.2425 -635.233 0.390789 -0.870882 -0.298073
0.288451 -23.4641 -632.27 -0.900556 0.429626 -0.0664842
119.145 12.7967 -635.092 0.441222 -0.848273 -0.292842
84.1815 39.1185 -635.932 -0.127402 0.99157 -0.0235946
129.911 42.1515 -635.669 -0.479707 0.719506 -0.502188
133.894 46.5102 -634.721 -0.61722 0.786052 -0.0340816
-32.9418 -101.947 -634.63 0.172662 -0.307453 -0.935767
-40.4157 -102.321 -634.199 -0.378658 -0.0463971 -0.924373
-37.143 -93.3338 -635.368 -0.519544 0.0937431 -0.849286
-36.0645 -86.1473 -634.438 -0.711541 0.243886 -0.65896
-1.06165 -73.4914 -637.505 0.341779 -0.609368 -0.715443
107.402 2.34487 -637.45 0.700633 -0.672936 -0.237216
164.617 46.006 -635.046 0.920788 0.236055 -0.310527
161.565 55.8577 -633.435 0.932076 0.352697 0.0826996
150.392 70.3931 -638.277 -0.213088 0.955835 -0.202417
-26.3982 -93.1523 -636.104 0.27182 -0.364464 -0.890663
-20.0995 -89.3641 -635.002 0.428891 -0.530127 -0.731449
-14.4274 -86.7229 -633.784 0.406784 -0.637567 -0.654244
-6.62679 -81.9468 -633.821 0.431679 -0.606402 -0.66778
-32.5624 -75.0326 -633.264 -0.803195 0.417708 -0.424733
-27.2121 -67.1172 -634.054 -0.787829 0.464922 -0.403947
50.2205 -50.2895 -634.786 0.412901 -0.867279 -0.278101
93.3179 -16.6344 -633.029 0.837023 -0.536821 -0.1059
101.43 -4.2029 -635.845 0.711902 -0.638296 -0.292871
43.1415 22.1759 -635.224 -0.262216 0.965007 -0.00196802
107.428 38.7521 -633.789 -0.116017 0.829373 0.546516
111.25 40.3173 -634.74 -0.0503062 0.968382 0.244346
141.323 52.3988 -634.923 -0.902868 0.429855 -0.00740621
157.829 64.9618 -633.502 0.848856 0.461761 0.257331
-42.5173 -98.3008 -631.682 -0.762408 0.199628 -0.615534
-36.3977 -97.1718 -635.878 -0.252981 -0.0927616 -0.963014
-34.133 -79.579 -633.876 -0.788088 0.323703 -0.523578
28.5902 -61.0921 -633.415 0.325403 -0.880191 -0.345508
68.7036 -40.3155 -635.016 0.446622 -0.797095 -0.406409
80.1856 -31.1435 -634.802 0.653789 -0.606986 -0.451806
84.2257 -28.0221 -633.379 0.723683 -0.668311 -0.172172
3.94567 -15.3017 -632.202 -0.909725 0.408558 -0.0740344
140.121 49.082 -632.952 -0.664248 0.491162 0.563502
146.442 70.4644 -633.857 -0.429301 0.865546 0.257935
-36.4153 -108.836 -633.001 0.140953 -0.260493 -0.955131
-37.4467 -105.009 -633.67 -0.058634 -0.205983 -0.976797
-21.9707 -58.7052 -635.875 -0.782799 0.424595 -0.454912
21.8742 10.3118 -634.601 -0.753186 0.657781 -0.00595853
32.5835 18.5095 -637.737 -0.581837 0.809601 -0.0775387
150.155 20.478 -634.731 0.191104 -0.932773 -0.305637
158.286 21.8225 -629.601 0.182839 -0.70482 -0.685418
70.9366 34.3391 -633.633 -0.370859 0.927276 0.0512046
167.633 36.2645 -633.02 0.90379 0.119119 -0.411065
88.9984 37.1395 -629.722 0.141517 0.946171 0.291089
90.0179 39.0825 -636.129 0.155318 0.987745 -0.0153846
118.174 36.2987 -631.855 -0.078152 0.691876 0.717774
115.495 39.0603 -633.629 0.0480703 0.819808 0.570618
126.261 40.219 -634.411 -0.380634 0.899926 0.212721
154.678 69.5601 -633.43 0.664609 0.696363 0.270876
-42.5647 -106.349 -632.998 -0.432514 -0.011341 -0.901556
